# .PCD v0.7 - Point Cloud Data file format
VERSION 0.7
FIELDS x y z
SIZE 4 4 4
TYPE F F F
COUNT 1 1 1
WIDTH 176
HEIGHT 1
VIEWPOINT 0 0 0 1 0 0 0
POINTS 176
DATA ascii
0.1261778 0.65523201 -1.6117989
0.051328499 0.6321103 -1.5588535
0.054933801 0.63384658 -1.5430763
0.052053601 0.62118202 -1.5220443
0.049260799 0.62009913 -1.5255054
0.045204401 0.60774982 -1.4809693
0.1096881 0.4649857 -1.1396552
-0.0589839 0.40445799 -0.9614355
0.094959296 0.66386992 -1.6325145
0.094191499 0.66755462 -1.6325604
0.094922103 0.66639853 -1.6334268
0.0290817 0.461584 -1.1216651
0.055223901 0.63659853 -1.5471084
0.010326 0.5472306 -1.3262556
0.0163984 0.56954902 -1.3635155
0.019115301 0.56604469 -1.3790116
0.0170362 0.56143433 -1.37319
0.0156015 0.56478018 -1.3790002
0.0641912 0.3393603 -0.79572183
0.099956296 0.64789587 -1.5928257
0.0512469 0.63459867 -1.5491503
0.051807798 0.61876678 -1.5135665
0.0376551 0.59474307 -1.4706162
0.044688199 0.59851581 -1.4517356
0.0584407 0.6445511 -1.5737815
0.058295 0.64404899 -1.5729239
0.1013681 0.63088149 -1.5498304
0.0015088 0.5413931 -1.2874756
0.0062894002 0.53747803 -1.2872486
-0.0145663 0.53830582 -1.2621689
-0.0026757 0.52177858 -1.2677152
-0.0124588 0.54152811 -1.2587631
-0.0025161 0.51585758 -1.2322644
-0.015831601 0.49607119 -1.1731488
0.16110221 0.4995763 -1.2118301
-0.067268603 0.44058341 -0.97614121
-0.065159701 0.38573539 -0.90673703
-0.084390402 0.3725746 -0.90409839
-0.0050297999 0.34622511 -0.8234092
0.054920599 0.63674802 -1.5457735
0.064400598 0.6666916 -1.6455568
0.0751497 0.66920471 -1.6418483
0.059520099 0.64590663 -1.5722054
0.053651899 0.62491572 -1.5229554
0.038170401 0.6054374 -1.4710554
0.0356845 0.60086918 -1.4569943
0.035708498 0.59396333 -1.4699674
0.0378596 0.60362703 -1.4711137
0.031906601 0.59388429 -1.4448966
0.0276279 0.59334522 -1.4315631
0.0204251 0.56994158 -1.4075812
0.0012605001 0.52031779 -1.2474282
-0.0112383 0.51708698 -1.2381927
-0.0097457003 0.51592851 -1.236692
-0.018374899 0.48240691 -1.1588496
0.034889001 0.59493083 -1.4464797
0.032239001 0.59444052 -1.4463499
0.019778499 0.56617212 -1.3662027
0.0198415 0.56592298 -1.3646142
0.0207 0.55413771 -1.3468776
0.0080263996 0.54987592 -1.3474542
0.020945599 0.53394759 -1.2356138
0.0013055 0.51878798 -1.2480028
-0.0011347 0.50947487 -1.2363032
-0.0262229 0.4676429 -1.1179606
-0.0263087 0.46396941 -1.1104487
-0.033592202 0.4384622 -1.0505068
-0.029598501 0.4379738 -1.0336202
-0.034925301 0.43549249 -1.0391744
0.0174482 0.56939858 -1.3817394
0.0013465 0.59181517 -1.3118395
0.0059096999 0.53682029 -1.2918849
-0.0026125 0.52413172 -1.2683839
-0.033654399 0.50008702 -1.185895
-0.0082540996 0.49459419 -1.1946508
-0.038269401 0.4799175 -1.1250349
-0.0233928 0.47339001 -1.1311554
-0.026864801 0.46871841 -1.1222534
-0.0486909 0.41693431 -0.99074632
-0.0498708 0.41727781 -0.99243832
-0.0576845 0.40078339 -0.94716728
-0.0618494 0.4006201 -0.95257699
-0.0724364 0.37829521 -0.88354272
0.0598942 0.39920151 -0.95891458
0.062907897 0.3419331 -0.81756562
0.091627799 0.3403582 -0.80040711
-0.059929699 0.4017792 -0.94685698
-0.069412403 0.38482639 -0.91413498
-0.059380099 0.38258421 -0.88464057
-0.075961702 0.37709859 -0.88936889
0.056694999 0.63684821 -1.5445474
0.0136983 0.55387503 -1.3402513
0.0051532001 0.53537112 -1.3120043
-0.0063565001 0.53883988 -1.2925255
-0.0078531997 0.53602141 -1.2820542
-0.0139233 0.51839578 -1.2415857
-0.0124085 0.51813889 -1.2400739
-0.0172056 0.4983995 -1.1919421
-0.023706701 0.4951078 -1.1770625
0.057347901 0.63388348 -1.5348423
-0.0153652 0.49008241 -1.1965194
-0.0210275 0.49244511 -1.178535
-0.0394466 0.47978029 -1.1250417
-0.0394255 0.47966689 -1.1245526
-0.0275444 0.4676708 -1.1218359
-0.0284242 0.46687329 -1.1211915
-0.0275732 0.4676533 -1.1236054
-0.0128468 0.46993279 -1.1197448
-0.034571599 0.45176491 -1.0782096
-0.034136198 0.45233199 -1.0774722
-0.045554802 0.4223991 -0.99210483
-0.046071202 0.41213629 -0.98362678
-0.056923401 0.46933571 -0.95940411
-0.059861399 0.46628991 -0.96444547
-0.069136702 0.38565969 -0.91767693
-0.069756098 0.37696081 -0.88157219
-0.095140301 0.37244061 -0.859061
-0.1006839 0.36861721 -0.8733089
0.1720794 0.50525123 -1.2289463
0.066559903 0.3762024 -0.89264899
0.033545401 0.59753519 -1.4362885
0.0284798 0.5830043 -1.4055744
0.0248615 0.60855693 -1.4622072
0.1516815 0.49254489 -1.1881951
0.073969498 0.4042964 -0.97124797
0.058939099 0.386076 -0.92327273
0.058304701 0.3854394 -0.92422187
0.086491801 0.35369521 -0.84111673
0.083288699 0.34228301 -0.81118602
-0.018617401 0.49942401 -1.1814262
-0.032186601 0.46650711 -1.1256866
-0.039043002 0.4332397 -1.0374199
0.0137748 0.47347951 -1.1417611
-0.063878201 0.40028071 -0.95731747
-0.0080255996 0.44299039 -1.0718626
-0.061180901 0.40093949 -0.95074528
0.028496699 0.4591943 -1.1154966
0.034576502 0.44873989 -1.081751
0.032773301 0.44762719 -1.0842943
-0.0100853 0.41270101 -0.99085069
-0.0085645001 0.4110283 -0.98910618
-0.0086136004 0.41258931 -0.98829472
0.034582999 0.44646519 -1.0813527
0.0655673 0.4675571 -1.1319746
0.0161811 0.42522129 -1.0160309
0.017445801 0.42350581 -1.0156409
0.1056142 0.46819559 -1.1350257
0.1230322 0.4790704 -1.1612757
0.1235551 0.47878209 -1.1613237
0.1060121 0.46683431 -1.134221
0.16417021 0.50303829 -1.2279679
0.16173591 0.50067347 -1.2279334
0.1507411 0.49114239 -1.1880723
0.0103414 0.3722882 -0.89036101
0.034200199 0.37288231 -0.89029592
0.078124098 0.40340689 -0.97820872
0.0346829 0.35230431 -0.84426439
0.0761538 0.35798171 -0.86006463
0.076765999 0.3582283 -0.85547757
0.081499599 0.34208649 -0.8132652
0.059826002 0.3839156 -0.92261457
0.1087877 0.3479799 -0.82520902
0.0170273 0.4135699 -1.0002698
0.0176108 0.4107435 -0.98089468
0.017468 0.4101325 -0.9807443
0.072938003 0.33777869 -0.80119419
0.059128601 0.63380557 -1.5286435
0.0097315004 0.54753822 -1.3247989
-0.093768999 0.37579951 -0.85301149
-0.036458898 0.4334341 -1.0353007
-0.0582911 0.405108 -0.96406931
0.0043556001 0.53221571 -1.3022599
-0.0035045999 0.5321914 -1.2785079
0.015976099 0.5585655 -1.3410355
-0.0091642002 0.4993743 -1.1970755
-0.033272501 0.49160221 -1.1119459
