# .PCD v0.7 - Point Cloud Data file format
VERSION 0.7
FIELDS x y z
SIZE 4 4 4
TYPE F F F
COUNT 1 1 1
WIDTH 221
HEIGHT 1
VIEWPOINT 0 0 0 1 0 0 0
POINTS 221
DATA ascii
0.59221298 0.1379109 -0.23617201
0.55086559 0.098291397 -0.1437611
0.53143722 0.099813603 -0.1735395
0.53406543 0.096966103 -0.1665417
0.53849697 0.1006686 -0.1687218
0.47230339 0.1844328 -0.37982979
0.50331128 0.1504997 -0.28863069
0.26996651 0.1184924 -0.212203
0.47017431 0.19101331 -0.3712061
0.46889341 0.18985011 -0.37291959
0.46857679 0.1902495 -0.3731077
0.49778149 0.15450311 -0.28953809
0.50060922 0.15723491 -0.28591251
0.26905301 0.1000382 -0.1664632
0.55959731 0.18180171 -0.35521209
0.2411771 0.067858703 -0.054188799
0.4167836 0.1325848 -0.23962259
0.27281371 0.0856805 -0.1077913
0.50371808 0.1507325 -0.27929741
0.30206579 0.086399801 -0.1193954
0.37389931 0.1079834 -0.1726301
0.2767837 0.076189503 -0.087709002
0.2236058 0.061062101 -0.0431269
0.3976956 0.1088369 -0.17960329
0.5545277 0.15383171 -0.28552091
0.41590849 0.1108367 -0.17697801
0.32989061 0.080599204 -0.120868
0.55819482 0.1547768 -0.28396249
0.3876988 0.098212697 -0.1452083
0.53112698 0.1376663 -0.2451597
0.41006309 0.1016484 -0.1567411
0.43340409 0.1045437 -0.1600659
0.3885617 0.088793397 -0.1162236
0.37884599 0.083653398 -0.11053
0.2692129 0.050725799 -0.0075210999
0.38272831 0.084814802 -0.1062783
0.4376882 0.096343897 -0.1546361
0.26886359 0.0506716 -0.0116454
0.46283031 0.1030415 -0.1641431
0.57969463 0.1327889 -0.2242873
0.52838808 0.090650097 -0.1187526
0.61632037 0.1197823 -0.1771238
0.46667179 0.061909501 -0.041317899
0.37358081 0.13243049 -0.2369051
0.33579889 0.1211427 -0.2061018
0.27360111 0.098584302 -0.1480957
0.2851803 0.1018505 -0.1493894
0.31369171 0.1012386 -0.1568521
0.52565879 0.1661032 -0.31786209
0.39462429 0.1215209 -0.2101199
0.50377029 0.1504897 -0.27921319
0.27322319 0.085284099 -0.1067352
0.27301949 0.085345499 -0.1072937
0.3143695 0.091436602 -0.13509519
0.44270441 0.1300711 -0.2288253
0.2358759 0.065617599 -0.052569699
0.53215557 0.13742959 -0.2475718
0.44626629 0.1082795 -0.1702451
0.46277091 0.1030743 -0.15930679
0.59558278 0.1456769 -0.2556262
0.47524929 0.092300802 -0.1313177
0.2832278 0.033827499 0.0387398
0.570862 0.11378 -0.1790399
0.52363873 0.078448698 -0.093610197
0.52155298 0.078768097 -0.094860002
0.46108481 0.061199099 -0.045801699
0.46528769 0.0622131 -0.043864701
0.2934849 0.053291999 -0.0125393
0.34568799 0.061992198 -0.042707399
0.40296659 0.074065499 -0.076468997
0.40209621 0.073616602 -0.079205103
0.4006058 0.072871201 -0.080374099
0.37326309 0.0624859 -0.056193601
0.51644617 0.095747799 -0.1387352
0.56381088 0.1123059 -0.1780096
0.52110583 0.078193098 -0.095964998
0.37354049 0.15049189 -0.28219819
0.43222079 0.16017 -0.305861
0.28233361 0.1128407 -0.1919402
0.45825681 0.1622218 -0.3099139
0.26084301 0.097960398 -0.1456252
0.2741541 0.097628802 -0.1492231
0.4657394 0.1517459 -0.28457889
0.32052931 0.104886 -0.16419581
0.34974831 0.1064326 -0.1726097
0.50366467 0.1505378 -0.2796697
0.50286072 0.1501679 -0.28003061
0.57057059 0.1679098 -0.31951049
0.30674681 0.084491901 -0.1134874
0.48525399 0.13875671 -0.24682461
0.27611911 0.076410703 -0.089623898
0.4413732 0.1140891 -0.1759806
0.43413571 0.1023914 -0.160916
0.36219221 0.080263004 -0.0929088
0.4021402 0.073094703 -0.079283103
0.42401731 0.1664294 -0.32852581
0.2308021 0.1113286 -0.17892
0.254567 0.1158965 -0.19034749
0.25905341 0.1142698 -0.18710069
0.30538741 0.1280631 -0.2249171
0.31284651 0.1258999 -0.21936069
0.36135969 0.140725 -0.257047
0.4340761 0.1616955 -0.3043071
0.2177172 0.092412703 -0.1270926
0.45620531 0.16112681 -0.3077535
0.49860799 0.1763982 -0.33760041
0.2610465 0.1028261 -0.1558959
0.4134182 0.1448475 -0.26990449
0.45580789 0.1580856 -0.30168131
0.26883009 0.094559498 -0.1323989
0.39436829 0.1214129 -0.2104876
0.29456159 0.097491004 -0.1402799
0.46367699 0.1323489 -0.2357133
0.21389531 0.060681202 -0.0376845
0.2055622 0.1111659 -0.18185361
0.60168999 0.1712521 -0.32295439
0.2224627 0.034163099 0.030272501
0.2406494 0.039861299 0.015805401
0.55319989 0.1063474 -0.16172691
0.53029591 0.0964581 -0.13271721
0.51987553 0.078249402 -0.096697897
0.3343401 0.15030649 -0.27911419
0.19126549 0.1049036 -0.16934679
0.3600646 0.1404462 -0.25864199
0.2749387 0.1160844 -0.19134711
0.3472605 0.1270687 -0.2223331
0.3366203 0.1215005 -0.2048939
0.2648167 0.070029102 -0.070843697
0.27575979 0.074754797 -0.0891909
0.39703339 0.096135497 -0.143224
0.46422371 0.1043892 -0.16346399
0.4000648 0.072615698 -0.081165597
0.56583202 0.1221281 -0.1947256
0.61606491 0.1078113 -0.153924
0.39494309 0.16761769 -0.32341239
0.37885329 0.1583786 -0.30285159
0.35684711 0.1507436 -0.28245109
0.3723236 0.1534889 -0.28844261
0.34424189 0.1385729 -0.25139579
0.25375831 0.1030569 -0.16274071
0.21706539 0.092714801 -0.1260144
0.26117551 0.1036666 -0.1546656
0.41274631 0.14549591 -0.26999909
0.4148764 0.1449744 -0.26871219
0.35541549 0.1257063 -0.2206399
0.51432931 0.1735096 -0.33834869
0.3202945 0.1046452 -0.16496579
0.35021901 0.1065543 -0.1721423
0.36820981 0.1066103 -0.17629141
0.34511331 0.096275203 -0.1440963
0.22400901 0.061702199 -0.0422194
0.54397207 0.1320021 -0.22367799
0.52660638 0.080033198 -0.1029879
0.47304451 0.067916602 -0.0623971
0.49910641 0.071101099 -0.068908401
0.3663806 0.1628654 -0.31685489
0.35049859 0.1516398 -0.28479689
0.34099981 0.1304438 -0.23544461
0.33590099 0.121245 -0.20603891
0.39520779 0.1235216 -0.213055
0.60301793 0.1722258 -0.32213441
0.40102261 0.072366796 -0.080507196
0.35353911 0.0478363 -0.0072086002
0.19120499 0.1078354 -0.1690685
0.32111901 0.14240371 -0.264337
0.35674891 0.1549242 -0.29194701
0.28624159 0.1220852 -0.2073894
0.28624219 0.1223971 -0.20734049
0.18287469 0.091876604 -0.1227982
0.41907191 0.15772571 -0.30004701
0.19470391 0.092784002 -0.1277481
0.45617011 0.1619509 -0.31202921
0.1908208 0.080433302 -0.092109904
0.24418899 0.090174302 -0.1216814
0.2736977 0.087053597 -0.1057077
0.3079522 0.086239196 -0.1008202
0.2142587 0.061897099 -0.034833401
0.48398349 0.1319509 -0.2411941
0.20001259 0.0500989 -0.0024816999
0.33256769 0.080188699 -0.095334902
0.43069991 0.098678596 -0.1475924
0.37436959 0.077407002 -0.088123597
0.5434168 0.1208306 -0.1976763
0.34881729 0.15077581 -0.28584361
0.30819911 0.1389285 -0.25252771
0.33214489 0.13602491 -0.2401052
0.2301113 0.095660701 -0.138393
0.2296488 0.095141202 -0.139916
0.3920944 0.14299589 -0.26389521
0.2167616 0.0920358 -0.1285658
0.450194 0.1464944 -0.268466
0.4175064 0.1319239 -0.2391317
0.2471507 0.086219601 -0.1032601
0.41850331 0.12761711 -0.2282593
0.3471877 0.1005147 -0.1600085
0.23696551 0.055531301 -0.034614399
0.42377999 0.084300302 -0.1170957
0.50815219 0.101416 -0.1515426
0.38445109 0.13706461 -0.25410211
0.2494314 0.061217699 -0.036822598
0.2359758 0.0558323 -0.033652298
0.483834 0.1168693 -0.193988
0.2092009 0.1068111 -0.16713341
0.18346889 0.091696903 -0.1210466
0.18335029 0.092108801 -0.1212953
0.1649248 0.074983001 -0.0749714
0.1648919 0.075112097 -0.074172899
0.2806133 0.1062802 -0.1638073
0.2423223 0.090384997 -0.12649091
0.36877069 0.1205517 -0.2099618
0.40756199 0.081280902 -0.1025557
0.20548379 0.1119884 -0.1793015
0.3860074 0.1388848 -0.2528123
0.2062462 0.098854601 -0.18957239
0.26182589 0.056948502 -0.0236212
0.26058939 0.051831901 -0.0142718
0.40673491 0.074880302 -0.088357702
0.48453259 0.056897599 -0.063403703
0.2699936 0.1135354 -0.1192813
0.3163617 0.1419744 -0.26146159
0.51881629 0.1440132 -0.2671479
