# .PCD v0.7 - Point Cloud Data file format
VERSION 0.7
FIELDS x y z
SIZE 4 4 4
TYPE F F F
COUNT 1 1 1
WIDTH 1492
HEIGHT 1
VIEWPOINT 0 0 0 1 0 0 0
POINTS 1492
DATA ascii
3.9203041 -0.3484039 1.717153
3.9133914 0.2298727 1.9545108
3.8751512 0.2360682 1.869709
3.5416961 -1.0089 0.3678613
5.7892714 -0.25577271 0.3614555
3.9345217 0.034635399 0.87772989
4.8436427 -1.4983145 0.76309103
5.3689508 -1.0983531 0.71368212
5.7734461 -1.0941613 0.63328242
4.8193188 -1.1858889 0.83512419
5.9540238 -0.77916878 0.71759123
5.3622603 -0.77014929 0.85008007
4.8409967 -1.1975019 0.86775428
4.1571484 -1.5528105 1.1499888
4.1334252 -1.5996158 1.1265562
5.7630043 0.33363241 0.6044246
4.8485889 -1.5622737 0.69867343
5.843895 -1.2710676 0.59257251
5.7439547 -1.3460464 0.45749241
4.8341799 -1.2029191 0.82042831
3.8249006 -1.4224327 1.1428524
4.1252737 -1.5038515 1.1383175
3.9831717 -0.33459651 1.7580167
4.4803014 -0.35300791 1.6886725
4.11799 -0.3152827 1.7454349
4.2647672 -0.30820379 1.7518049
3.9128697 0.221947 1.8167727
4.0257626 -0.4825443 1.6950723
4.7752938 0.35032129 1.708758
3.9982128 -0.2821092 0.72109622
5.9036846 -1.2834078 0.28871211
5.8882151 -1.324447 0.30972609
5.8821959 -1.1573136 0.3415159
5.9170346 -0.9989444 0.3992728
5.7570562 0.034659199 0.44124299
5.8245392 -0.127193 0.51187712
4.2542658 -0.25393751 1.4793664
4.7836962 -0.1954955 1.4887626
4.8803878 0.48949179 1.4809161
3.9505606 -0.29217401 1.6565957
3.8628705 -0.32942289 1.6228688
3.9445667 -0.25267419 1.6157585
4.0604529 -0.27596021 1.5979698
4.0829768 -0.32886121 1.7894461
4.4700503 -0.34989181 1.6587491
3.9049134 -0.25894871 1.6936288
4.6954246 -0.20205539 1.5090457
4.5697193 -0.2199093 1.5529863
4.5534215 -0.27650589 1.6947836
4.4736319 -0.34049311 1.6554288
4.490592 -0.36792901 1.7662104
4.4345131 -0.23446859 1.6371582
4.0284338 -0.33213821 1.7712976
4.76407 -0.3507092 1.5538827
4.0748057 -0.31986409 1.7743915
4.5021119 -0.37387139 1.6514854
4.6601367 -0.2573027 1.6409444
4.7932444 -0.24245781 1.6039809
4.81989 -0.2362922 1.6077291
4.5302372 -0.26658869 1.6584635
4.3360295 -0.41751751 1.6399056
4.1635823 -0.31134471 1.742918
4.0302038 -0.32970631 1.7868304
4.5122685 -0.3759599 1.6671594
4.5001769 0.31542271 1.7438875
3.9196317 0.25265971 1.8895144
4.7498598 -0.2492553 1.6149988
4.6338897 0.32978749 1.7162322
4.3265781 -0.42928201 1.6639707
4.3629751 0.2985777 1.7781794
3.8736813 -0.55312192 1.6786261
2.6356881 -0.38754389 0.99693263
2.6535685 -0.042194199 1.1285707
4.14011 -1.6182569 1.1458101
4.1163416 -1.3794614 1.1892613
4.8290701 -0.62714982 1.0850936
4.0897756 -1.0821075 1.2937925
4.8111477 -0.42528301 1.1512705
4.9270487 -0.65096688 1.0738449
4.0656619 -0.9895317 1.3799533
4.8935823 -1.2196637 1.0987678
5.9573798 0.54061377 1.1279163
4.0741763 -0.80453151 1.455874
4.5586867 -0.2178358 1.533507
4.42308 -0.2352303 1.5611143
4.0590129 -0.27477539 1.6211717
4.2401433 -0.25449699 1.5916709
4.7889009 -0.38704011 1.4679126
4.0855856 -0.25913301 1.6434408
4.6370039 -0.37863299 1.4801694
4.8543582 -0.60900992 1.4255691
4.3778043 -0.2395326 1.5737786
4.7573838 -0.1627813 1.5024878
4.0228887 -0.2806108 1.6685365
4.095696 -1.2780384 1.2104076
4.1228046 -1.4243075 1.1765711
4.127511 -1.5876735 1.131683
4.1236877 -1.4284964 1.1756583
5.9727945 -0.4509109 0.79213762
4.8796868 -0.63604301 1.1722399
4.120059 -1.2196565 1.3749068
4.1167526 -1.2094733 1.3672593
4.1102071 -1.3105719 1.2881476
4.1062341 -1.3022425 1.2340295
4.0632467 -0.94578671 1.399274
4.1417007 -1.2587723 1.3029802
4.1375866 -1.2344086 1.2787551
4.099237 -1.2748752 1.2224586
4.0755687 -1.0608861 1.3367621
4.1091633 -1.0716596 1.3429652
4.0765657 -1.0436505 1.3840683
4.0864739 -1.0491263 1.3363113
4.1112509 -1.0341027 1.3605633
4.1110339 -1.0394931 1.3716079
4.0824432 -0.95872039 1.3820865
4.0827885 -0.86765307 1.4174778
4.0804009 -0.95237029 1.3658144
4.078444 -0.94886428 1.3701966
4.0870976 -0.95362091 1.3782884
4.0757275 -0.78255987 1.4105287
4.0824518 -0.87904221 1.4475665
4.0751152 -0.79898947 1.4663413
4.0446138 -0.73511559 1.4968655
5.8121142 0.61580819 1.0554125
4.0455875 -0.76853579 1.4634464
4.8052597 0.24385791 1.4938082
4.0698285 -0.7986595 1.4466417
4.067749 -0.65003282 1.5691651
4.8416719 0.47150001 1.5030897
4.8110085 -0.60106212 1.3508238
4.0386553 -0.72772282 1.500965
4.8329163 -0.59370649 1.4078511
4.2210774 -0.2223243 1.6383182
4.1206551 -0.76945919 1.4185911
4.1561294 -0.26825199 1.6235054
4.0877771 -0.2478082 1.6795105
3.8615496 -0.28166759 1.6773478
4.8137259 -0.63662952 1.3425184
4.6567926 -0.20661131 1.6107959
3.9549627 -0.28310469 1.7011542
4.7824535 -0.3923395 1.5253435
4.1818023 -0.2566402 1.6377295
4.2445254 -0.2571559 1.6018912
5.9581923 0.59385699 1.2477059
4.531281 -0.21795291 1.5152979
4.0165315 -0.49082869 1.7098786
4.1306844 -0.25957519 1.6276668
4.1750245 -0.2366396 1.6362913
4.001832 -0.50007308 1.7113715
3.8535256 -0.56434792 1.5917131
4.6308422 -0.36727649 1.5474144
4.8367076 -0.2392813 1.5484421
4.1741276 -0.55000508 1.7190163
3.843255 -0.57333302 1.5576634
4.8190575 -0.2075451 1.5275173
4.7707858 -0.36118519 1.5188013
4.7097974 -0.3670702 1.5665797
4.145792 -0.49136201 1.6856017
4.657342 -0.3648181 1.5164206
4.1500092 -0.5297094 1.7332672
4.7758651 -0.2467421 1.6195717
4.8207746 -0.67951328 1.0735393
4.8795986 -0.63667047 1.148975
4.8416238 -0.79113048 1.0984794
4.8237538 -0.62446958 1.0798215
4.8281322 -0.66489488 1.028367
4.0607429 -0.87234181 1.4484227
4.8220186 -1.184221 0.84590763
4.8356781 -1.1909769 0.86350441
4.870275 -1.1266099 0.99207288
4.8598671 -1.1174365 0.96956348
4.8310785 -1.1698027 0.85254037
4.8416529 -1.1092346 0.94480968
4.856842 -1.1256044 0.97514647
4.6963549 -0.3622466 1.5320482
4.5933118 -0.26634771 1.6566303
4.0308061 -0.3281514 1.7860229
4.5275645 -0.38378319 2.0201383
4.2089801 -0.30780619 1.7403971
3.968796 -0.35036269 1.8122097
4.4776134 -0.27657589 1.6761369
3.9619708 0.2517617 1.8700076
4.1342063 -0.52395272 1.6186556
3.8890932 -0.5116303 1.7081767
4.7652106 0.33548099 1.6827767
4.706666 -0.36312589 1.5667487
3.8929021 -0.55431288 1.9167283
4.6254473 0.62379807 3.3322279
4.0449204 0.068248801 0.87773049
4.6497183 -0.20793059 1.5170282
4.2563181 -0.94420218 1.4353259
4.10744 -0.27131349 1.6237497
3.9276745 -0.29537401 1.6731738
4.8385854 -0.59679329 1.4241991
3.9996295 -0.50232708 1.6659963
4.6719313 -0.36595681 1.5569167
4.6983762 -0.38796201 1.5237093
3.9609559 -0.485118 1.6861641
3.9607642 -0.4830651 1.6957518
3.8799045 -0.52055079 1.7004721
4.7006607 -0.3600896 1.3790646
4.6310315 -0.25935239 1.6302489
4.2364159 -0.31553721 1.755592
4.370225 -0.29741439 1.7161752
4.7369132 -0.262566 1.6079408
4.0966253 -0.3283942 1.7591141
4.4316182 -0.27899551 1.6753025
4.7690544 0.34746099 1.6894826
4.322629 0.2965191 1.7962743
4.1911464 -0.3235836 1.7605526
4.7270498 0.3437739 1.7022771
4.3709354 -0.29604521 1.7104746
3.8918591 -0.33755589 1.7947879
4.5230145 -0.26788071 1.6575172
4.0011044 0.25030071 1.8504077
2.6492302 -1.2023878 0.64498258
2.6387045 -1.2112689 0.663858
2.6476421 -1.2005777 0.65207458
2.6611977 -1.2194628 0.6319114
2.6487164 -0.3695344 1.0082769
2.6281149 -0.023909001 1.1913346
4.8372345 -1.2005522 0.84397793
4.8626065 -1.1664782 0.85676777
4.8487158 -0.95225769 1.0326946
4.8649669 -0.95627838 1.0456376
4.8479037 -0.94621372 1.0264082
4.7776814 -0.89808643 0.84236509
5.0384698 -0.58407229 1.0243019
4.8417954 -0.60280389 1.0824146
4.8090448 -0.42203721 1.1558988
4.7826715 -0.65037882 1.1346705
4.931706 -0.6702649 1.3429084
4.9346271 -0.67947137 1.3453026
4.7447724 -0.1954039 1.5046618
4.7256374 -0.20031691 1.5271568
4.7024889 -0.2033657 1.5159693
1.8581438 -0.27334371 2.2069554
1.8245885 -0.0884552 2.2453444
1.844933 -0.041039299 2.2353873
4.9214711 -0.57019931 1.3709087
4.5957031 -0.2159825 1.5037332
4.8018346 0.234162 1.472187
4.9204516 -0.58975601 1.3718916
4.5154738 -0.2259043 1.5512813
4.5778255 -0.2133337 1.5224138
4.4542179 -0.2312519 1.5309161
4.1681805 -0.31463519 1.7594967
4.567534 0.32782829 1.7917928
4.6067538 0.32330951 1.7609512
4.7598495 0.3280504 1.6743175
1.8593787 -0.25164089 2.2191913
1.8438334 -0.0049141999 2.2366099
1.8870937 -0.35856479 2.1747704
1.8620285 -0.28474709 2.2087677
4.787519 -0.23475429 1.5443592
1.8708265 -0.16901881 2.1951125
1.8322366 0.075883597 2.2551835
1.7712584 0.1055115 2.2673061
1.8114209 -0.32320029 2.1870782
1.8462324 -0.045397401 2.2329907
4.8064075 -0.34915251 1.4951905
4.8257508 -0.34251079 1.5348517
1.7840059 -0.32621399 2.2217882
1.8724302 0.102632 2.2349079
1.8131914 -0.1092804 2.2410276
1.8910617 -0.32525411 2.0872481
1.803381 -0.048714999 2.2404394
1.7887592 0.1134344 2.2668967
5.4134002 -0.85150099 1.2920451
1.8237257 -0.287909 2.2172751
1.8821139 -0.51835078 2.2391827
1.7972338 0.075121403 2.2538216
1.7977145 0.073548898 2.2494977
1.7397664 0.0038504 2.2584572
1.79846 0.0101711 2.2522142
1.6997329 -0.35034379 2.3782897
1.8099679 -0.1091748 2.2320676
1.8002886 0.0133508 2.2506967
1.8393917 -0.338851 2.2024012
1.9175477 -0.76378798 2.1059902
3.6809497 -0.34860441 0.69887918
2.7190058 -1.2200572 0.60000241
3.6266849 -0.31121439 0.63100767
1.3189238 0.30833119 1.8207556
0.65883112 0.1974394 1.9976749
1.6443375 0.47282439 1.3859829
2.128623 0.54321682 1.2516074
2.0401568 0.50798202 1.2916756
1.8105882 0.51203358 1.3401096
3.6102829 0.6780569 0.98902398
3.6249299 0.68200022 1.0606277
1.6120452 0.47081289 1.4097112
2.5521114 0.53372508 1.3260101
1.4262544 0.37729031 1.5972213
1.4322705 0.3727645 1.6097333
1.3776387 0.38245699 1.5825312
1.5303216 0.40569249 1.5517471
1.463704 0.42340869 1.4841933
1.3959442 0.3888039 1.5416963
2.5433307 0.53080243 1.3331949
4.8742971 -1.1242207 0.97988367
1.5311384 0.37282789 1.6387823
1.4794823 0.3589949 1.6280937
4.8121243 -0.67073178 1.0575795
1.473953 0.36856031 1.63868
4.7705288 -0.61871409 1.0174066
1.2572491 0.28419179 1.8102916
1.3478467 0.3457821 1.670042
1.3356222 0.35290739 1.6900877
1.2175438 0.30026779 1.7823465
1.4029214 0.3634122 1.7061123
1.1570083 0.2670823 1.8372947
1.399038 0.3059822 1.7938907
1.7462283 -1.6603526 1.8017917
1.9433076 -1.6004798 1.8199098
1.8357608 -1.5269507 1.8140079
1.8071455 -1.6268883 1.8876662
1.3946018 0.2618174 1.9213885
1.8405585 -1.4573478 1.8176427
1.3854358 0.30671999 1.8307867
1.2342669 0.24615119 1.9483769
1.2075542 0.2187933 1.982088
1.7452476 0.2901977 1.9235586
2.6117325 0.013422 1.2461551
2.5964875 0.030254399 1.2997975
4.8519602 -1.0792336 0.86134571
4.8414865 -1.1100208 0.95572501
4.8432732 -1.1446623 0.93938619
4.8526893 -0.95060778 1.029723
4.8762059 -0.79310012 1.1344573
4.8733983 -1.3654212 0.99888748
4.8519258 -0.78444988 1.1030055
4.873733 -0.68011582 1.0694479
4.4136777 0.58316332 1.3163234
4.8507547 -0.62990272 1.0957206
1.9343705 -1.6199343 1.7831466
1.9442008 -1.5437257 1.7727227
1.935681 -1.6322589 1.7822984
1.8367592 -1.4711748 1.875897
4.9212294 -0.56575882 1.3751118
2.4323206 0.31580469 1.8616803
2.4332976 0.31681511 1.8587019
5.4820695 -0.86532122 1.3519964
1.923206 -1.1915398 1.9679084
1.8395621 -0.041066099 2.2391675
1.9251461 -1.1988875 1.9694264
1.8531743 -0.16604421 2.2204683
1.6512607 -0.23054031 2.2749527
1.6565065 -0.1840657 2.2029207
1.5957028 -0.2224009 2.2718859
1.9002525 -0.77199048 2.1412554
1.7194201 -0.15495379 2.2272973
4.6815429 0.32964671 1.7152656
1.7136111 -0.2194763 2.2433727
1.7516103 -0.033709001 2.2693784
1.7663469 -0.218868 2.2623551
1.4906396 -0.2337731 2.3055782
1.5370491 0.0140128 2.2988548
2.730052 -1.2338396 0.59921187
1.8771369 0.57172132 0.1420493
1.9389944 0.88743818 0.38686839
3.5574455 0.81021869 0.61251318
1.9556128 0.75257212 0.097655497
1.7291574 0.80386782 0.52695751
2.4160762 0.83703691 0.54879999
1.8524377 -1.6546096 1.7744492
0.27191409 -1.4226837 2.2217529
0.25893149 -1.1558388 2.3456893
1.7453398 0.025525499 2.2808299
1.4901254 -0.050849799 2.2956004
1.6783503 -0.053141098 2.2955234
1.5661824 0.078677997 2.3115563
1.7662492 0.041347999 2.262358
1.5169657 -0.0064265998 2.3020163
1.8430686 -0.162037 2.215842
1.9055763 -0.3353191 2.2116258
1.5726813 -0.0116251 2.2800186
1.8209498 -0.76900679 2.1644349
1.64017 -0.18843991 2.2694595
1.673262 0.1013461 2.2959964
1.570272 -0.076853298 2.290107
1.6330012 -0.1296815 2.2766516
1.5327779 -0.3201856 2.2804394
1.6494801 -0.308716 2.2484565
1.562284 0.087135203 2.299459
1.6299269 -0.0094119003 2.2715969
4.8230405 -0.3483828 1.5263413
1.5272663 -0.0136766 2.2822392
1.4039991 0.045809101 2.3206992
1.6818385 -0.0020771001 2.2719665
1.5143071 0.0483796 2.295491
1.9330105 -0.82289302 2.0674026
1.5593637 0.085395202 2.3041844
1.8258533 -0.2288615 2.2092707
1.504986 0.039985299 2.3099968
1.6768121 0.0575822 2.2767034
1.4679077 -0.40589309 2.2885852
1.5609608 0.0465349 2.3176785
1.6691077 -0.3772983 2.2365873
1.5147828 0.049818799 2.3083329
1.9281471 -0.66487032 2.1741705
2.0078881 0.52958119 1.2230175
3.7237725 0.72277951 0.95161837
2.6693084 -1.215688 0.62343138
1.1991866 0.29961491 1.7995899
1.1337799 0.32620201 1.7184432
2.0423353 0.88037568 0.38123509
2.5464525 0.76609987 0.70718932
2.260916 0.77857828 0.65844852
2.2116423 0.84463799 0.63498467
2.2935727 0.83382589 0.45037389
2.3899963 0.83683228 0.5764358
2.6439583 -1.1044769 0.71183318
2.6446872 -1.106523 0.7137714
1.0276859 -1.8371431 1.8246161
1.718878 -1.7859758 1.7880735
1.8909861 -1.7247089 1.7588152
1.8855716 -1.7870127 1.7676312
0.65039462 0.1561067 2.1147656
1.9227494 -1.7856165 1.7361777
1.258114 -1.8467288 1.8994774
2.7536545 -1.5976788 1.5727688
1.1688299 0.1989543 2.0408521
1.8467629 -1.4577037 1.8577507
0.83016539 0.1893992 2.063422
1.8937041 -1.771872 1.7681466
1.0350521 -1.5222787 1.9081193
2.0359852 -1.6147143 1.7720175
1.004407 0.1228214 2.2402289
1.1644866 0.1990297 2.0463774
1.9229113 -1.5252308 1.8341401
1.0716515 -1.6297779 2.0223501
0.97661662 0.1693971 2.1653419
0.86733347 0.1840636 2.0771008
1.5633897 0.25244659 1.9608701
1.2205015 0.23641931 2.0323954
1.0793467 0.13402361 2.2221177
2.7188325 -0.59682059 1.9772319
1.8769068 -0.36258319 2.2050188
0.87796599 -0.071895801 2.3775048
1.7675349 -0.1619809 2.2362099
1.6348161 0.0070048999 2.3069389
1.6883086 0.075625896 2.2810824
1.4795965 -0.3876729 2.2825999
2.6693282 -0.82484382 0.83373737
0.95549601 -1.0168023 2.3152947
0.95613599 -1.029902 2.1317401
0.82186091 -0.24595959 2.245451
0.91529292 -0.9635511 2.1898363
1.9031066 -0.93256068 2.0704317
1.9180309 -1.0138512 2.0548379
1.0413278 0.1126803 2.2383466
1.486627 -0.36568239 2.2987278
1.7120011 -0.1612457 2.2846837
1.7636151 -0.094712101 2.2472939
1.6536976 -0.37827039 2.2432818
1.4603686 -0.076235898 2.3011003
1.4433408 0.0172824 2.313175
1.4342633 0.062783703 2.3231261
1.7055006 0.81592631 0.52757108
1.8873187 0.79076397 0.60182083
1.9148144 0.77064991 0.5699954
1.6817871 0.8336935 0.54287618
1.9263812 0.77430129 0.137435
1.8976637 0.77804172 0.160506
0.87989128 -0.93039048 2.2448108
0.91835839 0.0073373001 2.3928735
1.5648324 -0.39031041 2.2555654
1.8128357 -0.1312996 2.2351422
1.4615452 0.075893901 2.3295181
2.4676769 0.68005723 0.89126247
1.7283373 0.62016737 1.0328161
1.9518033 0.67230368 0.84826487
2.6267481 -0.4421801 0.97453302
2.0205085 0.74676752 0.77230662
1.9542284 0.7305783 0.74858409
2.8146877 0.7241919 0.8797875
1.8980682 0.56567818 0.1225245
2.5495281 0.8522265 0.48356009
2.7346697 -1.2233416 0.58568752
2.734596 -1.2297974 0.58922189
2.0633285 0.79956353 0.60732222
1.8831817 0.75233591 0.16387691
1.8964467 0.56899142 0.1290649
2.3918133 0.82749969 0.59010488
2.4440765 0.84090328 0.58843797
1.6609745 0.84005737 0.59816408
1.9347855 0.62335289 -0.0090236003
1.9591711 0.60359472 -0.0454375
1.790045 0.81400549 0.27147141
1.9062575 0.74602151 0.95930582
1.8927408 0.56767511 0.1201693
2.1791375 0.76654881 0.67850423
2.0033231 0.69463468 0.68289351
2.0431712 0.70938063 0.84585953
1.5894319 0.77131993 0.83800077
2.1477044 0.70143718 0.96709663
1.9188629 0.66311532 0.99188012
4.3439245 0.77635741 0.87728602
1.7744534 0.78412598 0.44799781
2.1037548 0.63369209 1.0662373
2.6188991 0.67185563 1.0884049
1.1893407 0.55842727 0.92686951
4.4163046 0.60268641 1.3422296
2.4147141 0.56741703 1.2394167
2.6119914 0.065820299 1.2773256
3.2865124 -1.6370295 1.3634894
4.8005996 0.45987141 1.5105174
2.4193947 0.55141473 1.1558839
1.8853879 0.57448542 1.163063
1.1484487 0.57620621 1.0829884
4.744482 -0.36588141 1.943387
0.97745979 0.63568228 1.1044427
4.5711026 -0.1802402 1.5264454
1.9440557 0.51711768 1.1871789
1.0508894 0.60611469 1.0436317
4.4565301 -0.2134729 1.6085459
4.7595215 0.3311263 1.6654972
1.933443 0.51604629 1.3288287
3.870383 0.24452519 1.7493887
0.84339291 0.4910031 1.3794322
1.3188516 0.53214651 1.2360718
2.1216555 0.52811152 1.2994393
1.1586297 0.48535249 1.3789803
4.5489917 0.30779821 1.754637
4.1587534 -0.50447679 1.6877842
1.5783384 0.43555421 1.4718595
3.9606147 -0.45934051 1.7081401
1.0761272 0.51323599 1.4958625
2.0219755 0.49984699 1.4232709
1.5706387 0.435866 1.4925102
1.9079027 0.56431592 1.6974591
1.6875552 0.3893933 1.2948815
2.0480192 0.529724 1.4485303
3.960748 0.2416545 1.8677573
1.9190041 -1.6921227 1.6936936
1.3134184 0.369706 1.5327431
1.2089643 0.39715821 1.6749163
4.137979 0.2612614 1.849059
3.9982624 -0.50429612 2.0013671
1.8869436 -1.7176015 1.7630002
1.3698099 0.36271289 1.611503
1.4023083 0.2817345 1.8501306
1.9052163 0.85996348 0.49946859
1.9467648 0.88213938 0.37600449
2.6297338 0.643646 1.0349724
1.2160598 0.55308872 0.87351292
2.0994878 0.64374739 0.98246509
2.0625989 0.66086549 0.93596232
2.1987462 0.63433021 1.029027
2.1284652 0.62740308 1.0231309
2.2376206 0.84903562 0.4979502
1.9330269 0.76925778 0.13024101
1.5513891 1.7482139 -1.8115487
1.633311 1.4436798 -1.0922704
1.5505612 1.510491 -1.2923892
1.4883664 1.565629 -1.271458
1.678839 1.216678 -0.46927431
1.690328 1.2115918 -0.4778583
1.6681612 1.2297797 -0.45596859
1.4487875 0.87300593 -0.1537468
0.89637858 0.60902882 -0.91819608
0.91610157 0.69242263 -1.118816
1.0390904 1.0181481 -1.3541275
1.0559319 1.8210764 -2.0811791
1.0863411 1.2138672 -1.2739418
0.92616189 0.99908388 -1.5565295
1.0558968 1.2300044 -1.2646911
0.8347519 0.53781259 -0.77441841
0.90497839 1.1196803 -1.5345857
1.0619297 1.3410095 -1.2182149
1.1135855 0.91753852 -0.2197973
1.1296774 0.68499422 -0.1339988
0.82666397 0.53185129 -0.77173227
1.0086235 0.34046191 -0.460884
0.71427321 1.8825645 -2.2654181
1.543028 1.4949082 -1.084942
1.5164893 1.3865793 -0.90838391
1.9663758 0.99464148 0.096764497
1.5988718 1.5863436 -1.3202688
1.7163937 0.6856063 -0.1204939
2.1669872 0.99565428 0.1469059
1.4746258 1.6537015 -1.5535165
1.5908796 1.4672629 -1.0820998
1.5216192 1.5262543 -1.3284256
1.5064559 1.6244278 -1.5568738
1.5038637 1.5390304 -1.3078765
1.6256586 1.4375339 -1.0973992
1.4746653 1.5568038 -1.3093089
1.4866621 1.5522356 -1.3041011
1.5922343 1.4779769 -1.1998903
1.7910242 1.2384125 -0.53731561
1.7514036 1.2657013 -0.51013649
1.2342584 1.652303 -1.4899275
1.5359546 1.3619784 -0.94385189
1.7752364 1.2546901 -0.53323197
1.8509436 1.1432954 -0.2380241
1.49911 1.3881258 -0.914931
1.5987867 1.2798321 -0.38708609
1.3165683 1.5888908 -1.4769391
1.5073179 1.3894759 -0.90742803
1.6656147 0.67349112 -0.1221048
1.5333614 1.3655519 -0.94931728
1.0049015 1.0662161 -1.4548125
0.89412361 0.51516438 -1.1113608
0.99930948 0.92306119 -1.3943738
1.0195233 1.0235314 -1.3518443
0.91555089 0.69382381 -1.1191002
0.84783977 0.53274179 -1.1037204
1.4044337 1.3362005 -0.77582097
1.0496631 1.6244962 -1.4593674
1.248526 1.5966398 -1.3661841
1.3137852 1.4633559 -1.3115444
1.2311748 1.5033553 -1.2767606
1.442295 1.3141861 -0.78000301
1.398936 1.3383194 -0.77667582
1.3754002 1.3520683 -0.7630645
0.93568099 1.0082484 -1.5602816
1.1999209 1.5154546 -1.2651571
1.4511206 0.35042459 -0.56181228
1.0085272 0.91818023 -1.3944556
0.98533767 0.81373572 -1.4387589
0.91663092 1.1145611 -1.5370363
0.99834102 1.0145372 -1.4158157
1.3754065 1.3503541 -0.76583362
0.96203661 0.77386701 -1.3318294
1.6032698 0.60945243 0.071557701
0.96495938 1.6828194 -1.4469014
1.6195387 0.60256422 0.055484299
1.5710782 0.61693841 0.1030861
0.99793231 0.91988909 -1.3933736
0.97545391 0.79934973 -1.4736749
1.05635 1.6173257 -1.4374062
0.93566811 0.73093468 -1.2245256
1.6423347 1.5500641 -1.3330616
1.6796535 1.5347695 -1.2684356
1.6471295 1.5682081 -1.4585445
1.6540854 1.5418831 -1.2572954
1.5623997 1.7185711 -1.7810555
1.0619658 1.0944651 -0.1903702
1.2562594 0.70708042 -0.22996581
1.2585967 0.6829257 -0.0394269
1.1188277 0.73282611 -0.27012029
1.1425622 1.0784957 -0.1830534
2.1151512 0.78628218 0.67183357
0.93970829 0.74542397 -0.31370911
1.0006167 0.2580975 -0.33318239
0.92117041 0.31517091 -0.029687701
1.1137406 0.63022453 -0.0002947
1.0360252 0.2916221 -0.1091631
1.6856195 0.73148358 0.76176292
1.5991712 0.76667589 0.72354281
0.47654739 -0.0014586 0.1695534
2.1081717 0.51771092 1.3756421
0.59590453 -0.0030813001 0.1125136
0.59928489 -0.0034356001 0.1232674
0.65156078 -0.0017373 0.079864301
0.75727302 0.28316939 0.193691
1.3025302 0.60250211 1.0347898
1.2148606 0.60898018 0.83897698
0.63121623 0.66796798 1.6824164
0.1261778 0.65523201 -1.6117989
0.051328499 0.6321103 -1.5588535
0.054933801 0.63384658 -1.5430763
0.052053601 0.62118202 -1.5220443
0.049260799 0.62009913 -1.5255054
0.045204401 0.60774982 -1.4809693
0.1096881 0.4649857 -1.1396552
0.19024611 0.397277 -0.96952403
-0.0589839 0.40445799 -0.9614355
0.78086668 0.26253581 -0.56972361
0.76909709 0.26581669 -0.58515197
0.0013342 0.2817916 -0.65657479
-1.3086805 0.70428818 -0.66648132
-1.352206 0.38051671 -0.58766657
-0.35156119 1.079511 -0.27184159
-1.1123046 0.84422117 -0.4418498
-0.34005669 1.0801077 -0.29584149
-1.1761065 0.86055249 -0.31643841
-1.5661217 -0.1951424 -0.43254411
-0.2187974 0.88595259 0.034323499
-0.22911949 0.0384547 -0.028195599
-0.27339441 0.82549471 0.19713411
-1.0355463 0.71891338 -0.1416823
-0.2058645 0.60296363 0.0263396
0.96411312 0.77206618 -1.3335371
1.0071514 1.1469361 -1.2093835
0.98532432 0.79026061 -1.4710044
0.95546341 0.7774893 -1.2670804
1.0108387 1.3733126 -1.3972317
0.88384038 0.65726691 -1.0121711
1.0371344 1.6320333 -1.4477475
1.0604603 1.3449485 -1.2142274
1.1393301 0.33374649 -0.2087352
1.9130464 0.64498663 0.99272162
1.9905317 0.51316112 1.1147319
1.0814228 1.4483471 -1.1717236
1.0098401 1.3743634 -1.3941014
1.0523444 1.0742964 -1.0512819
1.1333311 0.70379019 -0.2841405
1.7377539 0.80410337 0.51192731
1.1344523 1.4262563 -1.212654
1.140193 1.4178537 -1.2152734
0.89745551 0.65364319 -1.0151209
0.90195322 0.69758809 -1.0348459
0.87716627 0.72493029 -0.78100419
1.0061018 1.2814683 -0.82941812
0.8325519 0.53410268 -0.77665091
1.1327839 1.1016074 -0.39786291
0.92200828 0.78242588 -0.91426587
1.7842393 0.57760471 0.98172021
0.90706807 0.88320732 -0.67620587
0.88328737 0.72048718 -0.78629398
0.83804238 0.52382231 -0.76952022
1.2087235 1.1962333 -0.89262772
0.9401772 0.75230521 -0.30814981
1.1510637 1.1195138 -0.2516095
0.21394099 1.8591363 -2.209651
0.1781714 1.8822862 -2.224015
0.89605308 0.48672041 -0.41866201
0.19137549 1.8742996 -2.2108157
0.4900758 1.7455089 -1.8168892
1.0202351 1.1252977 -0.089136802
0.39074671 1.8060479 -1.818891
0.1726831 0.72121829 -1.8145123
0.91919148 0.30823091 -0.0302325
0.96281242 0.29891801 -0.057914801
0.5524807 1.7142333 -1.8237177
0.57799768 1.6900307 -1.818506
0.1471274 0.7232722 -1.8151606
0.18842369 0.71885818 -1.8155938
1.5921335 0.49216771 1.3458334
0.2032344 1.5201449 -1.5886425
1.3932915 0.3568815 1.5752609
1.4958841 0.1993731 1.9412166
0.90080541 0.6069743 1.2853401
0.85936052 0.54624653 0.89984608
0.62588727 0.6115461 1.0543709
1.0544747 1.3486196 -0.96817982
0.91318238 0.26117051 -0.37092969
0.78964978 0.31577629 -0.60157043
0.91788912 0.88164318 -0.67910212
0.90330702 0.8853848 -0.66809291
0.90159053 0.70629352 -1.666187
0.76563692 0.4678959 -0.47735891
0.69730872 1.8832436 -2.2647858
0.87839037 0.27973899 -0.34865311
0.86929321 0.88708168 -0.56441069
0.72517848 1.8638427 -2.2513328
0.79049629 0.35640821 -0.4523997
1.0709373 1.4677737 -1.1930554
0.68470597 0.098712601 -0.1127294
0.60204118 1.8971335 -2.3617408
0.57373917 1.9085001 -2.3655894
0.61675978 1.6578133 -1.8155057
0.235321 1.9409474 -3.1638947
0.2319496 1.9281896 -3.1627181
0.66229302 1.9193369 -2.276607
0.28621039 2.2050586 -3.0790229
1.0087111 0.64955002 0.98355561
0.2340098 1.9326143 -3.1624775
0.49767259 1.7183154 -1.8039404
-0.012652 1.7411543 -3.2870128
-0.0056973998 1.7459823 -3.2865298
-0.162029 1.9347003 -3.2097967
0.76171148 0.56862909 0.9804396
-0.3178933 1.8836859 -3.1817312
-0.30178699 2.1755264 -3.1067727
-0.30739269 2.1514401 -3.1098888
-0.30691919 2.1309423 -3.0996091
0.38373369 0.58753657 1.0578895
-0.28164941 2.1775157 -3.1010554
-0.38644701 1.9356649 -3.2109711
-0.29018781 2.1261051 -3.1055233
-0.73802 1.6556494 -3.3595521
-0.38228819 1.9269609 -3.2106829
-0.4607853 2.2540431 -3.1652501
-0.45020029 1.9410471 -3.2336786
-0.49760351 1.9810526 -3.2546933
-0.36458319 2.107223 -3.1348269
-0.50132418 1.951666 -3.2533092
-0.83650267 1.7030518 -3.418011
1.2340541 1.7997034 -1.9919457
0.88362122 0.50881213 -1.1000483
0.95559728 0.77057821 -1.3262153
0.93291873 0.73413032 -1.2257291
0.91641039 0.69376707 -1.1198295
1.1299195 0.67950648 -0.1376998
1.2920649 0.68076199 -0.158016
1.2838452 0.72945088 -0.2259969
1.1154219 0.4137316 -0.38095519
1.0057815 0.34063339 -0.456642
1.0118964 1.0062952 -1.4234817
1.4819682 1.0558413 -0.074709103
0.97393519 0.64386338 -1.5121882
0.94992042 0.63511342 -1.4813178
1.2861525 0.72567141 -0.2357315
0.99510968 0.81222099 -1.4390997
0.9905178 0.70717698 -1.6705847
0.98463511 0.70511478 -1.6693748
1.3612539 0.86884242 -0.167357
1.3582746 0.87077028 -0.16066021
1.2958219 0.72266322 -0.2369532
0.92636639 0.82659101 -1.2280883
1.1241124 0.67764872 -0.1346252
0.94546157 0.72836637 -1.2282304
0.95715791 0.77289093 -1.3306
0.88681698 0.55511731 -1.2248924
0.99505413 0.3454152 -0.45357931
0.96055323 0.81198752 -1.250139
1.0006504 1.036294 -1.3471255
0.96939433 0.89939022 -1.224243
1.005242 0.34596461 -0.46287841
1.0070288 0.86454928 -1.2141104
1.0259331 1.1369058 -1.303159
0.94330531 0.74304968 -1.1508017
1.1194593 0.91704011 -0.22379939
0.92667878 0.68742901 -1.1252046
1.0344608 1.1299194 -1.3051525
1.0514766 1.2462466 -1.2610116
0.90878499 1.1260073 -1.5449301
1.0123056 1.3781441 -1.4035676
0.977503 0.96210492 -1.0774368
0.89905918 0.65043092 -1.0145241
1.1410497 1.097661 -0.20751341
1.0619249 1.3481702 -1.2166623
0.90682417 0.70404202 -0.94679272
0.84148473 0.40042961 -0.85810882
0.86789221 0.26215601 -0.3372716
0.8591572 0.66247189 -0.80064487
1.0455184 1.3653924 -0.96335548
0.98269677 1.1218969 -0.85837692
0.80092281 0.45069069 -0.67952228
0.88313842 0.45707789 -0.45402771
0.90397018 0.86440867 -0.72476703
0.8322565 0.5997256 -0.36303571
0.90300959 0.87791312 -0.66602027
0.92041308 0.88854778 -0.7591266
0.84831762 0.70773393 -0.34050611
0.9266578 0.98020792 -0.70259088
0.92262697 0.98897868 -0.62723428
0.9292379 1.0941756 -0.57286209
0.95099199 1.1956501 -0.53134513
0.83763403 0.75371689 -0.33263701
0.83862299 0.90530199 -0.28235191
0.52986211 1.7347095 -1.8240355
0.2177397 1.824522 -2.1361015
0.1369369 1.6619412 -1.7600447
-0.5974009 1.860093 -2.2906091
-0.57511657 1.848859 -2.286582
-1.4574136 0.42640999 -0.62223089
0.91138661 0.55437672 -1.2293036
0.89525491 0.52377421 -1.2026291
1.0116514 1.0810943 -1.2763789
0.82218689 0.32913309 -0.45808831
0.92311162 0.80567008 -0.89654201
0.9189598 0.26311249 -0.37275261
1.1467096 1.4270369 -1.2128963
1.0502679 1.4147086 -1.0563731
1.0666473 1.3397558 -1.2156891
0.83718163 0.54242051 -0.73163247
0.94151258 0.74561292 -0.31512871
0.8859427 0.79534721 -0.89074337
0.88029718 0.7079407 -0.66285771
0.79582918 0.4361468 -0.44409159
0.88379622 0.6999414 -0.66375971
1.1600173 1.1152366 -0.2668173
0.96976191 1.1730771 -0.69878441
0.75369388 0.72990441 -0.58582753
0.94791448 1.1022503 -0.66720963
0.89658493 1.5875778 -1.4527394
1.0458621 1.103353 -0.1796025
1.0042886 1.376735 -1.38773
0.85657227 1.6063026 -1.4491264
0.57463628 1.9798775 -2.29197
0.0788159 0.056392699 -0.2101627
0.2059857 1.8692734 -2.2096083
-0.50339347 1.6967442 -3.2876132
-0.84275502 1.6796595 -3.3820393
-1.0644495 1.7777088 -3.4660156
-0.72968769 1.9339672 -3.2391472
-0.99112612 1.4189224 -3.8503325
0.97886169 0.91097683 -1.6054841
0.95865768 0.82255042 -1.2683165
1.0024985 0.98117518 -1.3248789
1.007458 0.35234681 -0.45290369
0.95078421 0.79396552 -1.1597364
1.0292183 1.1400869 -1.3033949
1.0441223 1.2435716 -1.2586381
0.87526357 0.50912619 -1.1185194
1.0248427 1.1758617 -1.196017
1.0257363 1.1717013 -1.2050087
0.8641609 0.46117899 -1.0511068
1.0009725 1.116302 -1.1379514
0.97341722 0.3482742 -0.4577294
0.7442109 1.5510113 -1.451053
1.2855654 1.0561047 -0.1188055
0.63824749 1.6481161 -1.678512
1.1509415 1.1199661 -0.2570214
1.1183379 0.91229081 -0.2318019
0.60543251 1.6736457 -1.666405
0.97203553 0.83214623 -1.364951
0.95344299 0.77111667 -1.3232266
0.95972842 0.77395117 -1.3336469
1.1089597 0.31615549 -0.15702081
0.9498899 0.78193712 -1.2385378
0.91279078 0.56055099 -1.307816
0.95682639 1.0995507 -1.5447179
0.91417599 0.56003797 -1.30866
1.0079447 1.3482134 -1.3418986
1.450421 0.87470418 -0.1754041
1.0143932 1.1486082 -1.1308354
0.9063437 0.7088384 -1.0462701
0.94704509 0.85029519 -1.0120476
0.91281468 0.69714242 -1.1202643
0.91861242 0.69512099 -0.92059642
0.8356759 0.4366343 -0.96801031
0.83312702 0.38704649 -0.84048718
0.90551031 0.70607591 -0.95002669
0.97137982 1.1237853 -0.85423768
0.83516598 0.5220018 -0.76524842
0.87097138 0.55928648 -0.80542189
0.87790358 0.45933431 -0.4333306
0.90119731 0.86651027 -0.72365892
0.88244158 0.45701551 -0.44835669
0.87497032 0.67464972 -0.76186073
0.9380154 0.74672502 -0.3104178
0.79044813 0.43331191 -0.42664671
0.1291993 0.72883987 -1.8202152
-1.3075954 0.27860731 -0.29481021
-1.4460821 0.32122949 -0.27805889
-1.3568455 0.3848556 -0.57145309
-1.389968 0.0689665 -0.42675239
-1.5968388 0.39150509 -0.48347911
1.0317361 1.3595251 -1.4113097
1.0098608 1.3781371 -1.3999208
0.97984427 1.2880588 -1.4573677
0.97755569 0.71109033 -1.6650244
0.52415931 0.749102 -1.7594848
1.2812629 0.67008507 -0.093894497
1.2847662 0.66920912 -0.0964479
1.078941 1.4532651 -1.1697437
0.91588962 0.69074529 -1.1180646
1.4257263 0.88886827 -0.1280514
1.3661237 0.86182457 -0.1860586
1.2889917 1.2660265 -0.61573547
1.3303727 0.73663312 -0.2309975
0.91819888 1.5691501 -1.4249204
0.92128342 1.5669761 -1.4244609
1.36586 0.91689712 -0.1494928
0.93103123 0.64852059 -1.5023752
0.97617549 0.81057572 -1.4326605
0.91164619 0.91560262 -1.6421551
0.98016721 1.110898 -1.5402482
0.98223662 0.91177422 -1.6057559
1.3139619 1.1428177 -0.28922829
1.3366811 0.65834123 -0.1721088
1.278746 0.89354599 -0.1991203
0.86196762 0.56675911 -0.81062287
0.61268711 1.6710011 -1.6670984
0.97847629 1.2706597 -0.68992531
0.92352659 0.98910278 -0.62755972
0.92094928 0.98811209 -0.62032241
0.91639382 0.26183721 -0.3740581
1.1536729 1.1176091 -0.2635262
0.98270649 0.71130282 -1.6635519
0.97801352 0.70730841 -1.6755457
0.94724792 0.71534622 -1.6591475
0.96103019 1.0595429 -1.411757
0.65227449 0.73522842 -1.7399349
0.64158362 0.9483546 -1.6705878
0.64332879 0.95014739 -1.6651025
0.53324682 0.74408972 -1.7599887
0.89095652 0.50682068 -1.182631
0.95344722 1.2274067 -0.57273281
0.79595608 0.30184251 -0.35813379
0.78780121 0.4391568 -0.43719471
0.78663749 0.58659428 -0.47186819
1.0587529 1.098405 -0.173086
1.0795128 1.0846533 -0.2141168
0.84598452 0.83878148 -0.31904641
0.1731405 1.1195365 -1.6998438
0.2122411 1.3704237 -1.6308531
0.1832618 1.6588261 -1.8192
0.60916942 0.0106536 0.1000491
0.61750841 0.006844 0.060938101
0.1854389 1.6265738 -1.5887649
0.1848858 1.6251866 -1.5903296
0.1322495 1.6166 -1.5796093
-0.95727807 1.7045542 -1.8491453
-1.714329 -0.43520811 -0.4814789
0.99853462 0.70618123 -1.6740636
0.81856543 0.7386989 -1.6897486
0.91023481 0.91640472 -1.6403595
0.8349638 0.73855668 -1.7025301
0.94957852 0.63516313 -1.482777
1.7831211 1.1573858 -0.295881
0.93414372 0.73529142 -1.2256647
1.0863944 1.4556853 -1.1949844
1.7888302 1.1567384 -0.30187961
0.90296918 1.5897788 -1.4554706
0.98224539 0.70754248 -1.6767527
1.3077222 1.2571151 -0.62213898
0.42170969 0.9490217 -1.7038981
1.3150343 1.2600614 -0.61708659
1.4656855 0.65471011 -0.083007097
0.0787303 0.94814378 -1.7263526
1.4588864 0.88448948 -0.14171571
0.098473303 0.96070439 -1.7396104
1.131128 0.42584181 -0.43511829
1.5413884 1.0464483 -0.086047098
1.3609333 0.86607581 -0.16086911
1.3411474 0.96047968 -0.1447874
1.5404102 1.0546597 -0.057425398
1.3485608 0.97913271 -0.1140819
0.1366156 1.4171003 -1.5957973
0.1165211 1.1342417 -1.687358
0.063570097 1.7201418 -1.7769523
0.1333217 1.3947595 -1.6070355
0.1403966 1.3891964 -1.6120607
0.078267597 1.146204 -1.6694412
1.3011701 0.66292232 -0.117501
0.15028811 1.3724109 -1.6257762
1.3007646 0.66625309 -0.1395638
1.3006933 0.66015232 -0.13088369
-0.2364652 1.8009557 -2.132246
0.1214209 1.2144326 -1.6599879
1.1085078 0.73282439 -0.26124051
0.80898517 0.4652541 -0.5212267
1.1218774 0.89522803 -0.26151389
1.1316657 0.68243462 -0.1281274
0.64406472 0.0183351 0.054623902
0.61230958 0.0186157 0.0538656
1.0147916 0.56952542 1.1596748
0.88213342 0.32172111 1.7277272
0.96791363 0.1674044 2.1347449
-1.3132038 0.2033921 -0.054542799
0.58562821 0.33220029 1.7059164
0.9809373 0.70507509 -1.658735
0.98731339 0.90224928 -1.6098902
0.87505633 0.71818018 -1.7007958
0.95500833 0.80154538 -1.6180106
0.81892902 0.73456389 -1.7085423
0.95620888 1.0126653 -1.5619723
0.7692585 0.7208693 -1.717235
0.80349088 0.92908061 -1.6591614
0.79963011 0.92996472 -1.6562953
0.63266391 0.7760911 -1.7238314
0.98471832 1.2864959 -1.4503491
0.63172412 0.77622801 -1.7244376
0.56269473 0.70774108 -1.735647
0.57750368 0.65222561 -1.5782294
0.53144181 0.6809907 -1.6576461
0.90812749 0.91279483 -1.6393449
0.77256912 0.720388 -1.7535102
0.76397967 0.71777183 -1.7071838
0.74328637 0.72648132 -1.721238
0.7453534 0.72663748 -1.7227429
0.78408629 0.68681759 -1.6343541
0.70170307 0.7318691 -1.7274024
0.83785051 0.65433198 -1.5312722
0.64562142 0.73735058 -1.7364528
0.6298728 0.73019552 -1.7345036
0.87319583 0.62052119 -1.4698846
0.58593142 0.78779382 -1.7281559
0.62211728 0.86856371 -1.6952116
0.59364039 0.87593943 -1.7017231
0.50401127 0.71162182 -1.7735965
0.55923301 0.97602743 -1.679126
0.50127149 0.87901628 -1.723397
0.61785001 0.64552182 -1.5238085
0.5208171 0.65985578 -1.5998533
0.104982 0.83075792 -1.7763819
0.68190849 0.48278201 -1.1187338
0.1132306 0.94015771 -1.7525681
0.1102956 0.94221652 -1.7489318
0.095253699 1.1093237 -1.6860716
0.29576951 0.50787097 -1.2049809
0.97948003 0.71084732 -1.6557209
0.97901243 0.71332669 -1.6563617
0.92079198 0.70145798 -1.6718396
0.92127413 0.70122409 -1.6740038
0.87104309 0.7207275 -1.6925563
1.291642 1.2624564 -0.61674953
0.1124656 0.83545578 -1.7564073
0.1549253 0.93043309 -1.7529926
0.1425443 0.93936098 -1.7421421
1.1339751 0.41234261 -0.38214171
0.1212464 1.1332183 -1.6851174
0.83968002 0.53126162 -0.77340412
1.3679098 0.86521858 -0.1746626
0.0151096 1.2987652 -1.5649999
0.14894921 1.6251911 -1.5785335
1.0021493 0.34843081 -0.45709279
1.0417315 1.198982 -0.4628073
0.97404438 0.34552711 -0.46485209
1.0398263 1.2012023 -0.45327231
1.0342702 1.2054867 -0.4288055
1.1572039 1.1181326 -0.2537508
1.0559337 1.1913301 -0.46230891
-0.45164889 1.5401314 -1.4219679
-0.44509071 1.537315 -1.4242083
0.92789942 0.32042161 1.7217938
0.95648998 0.3388719 1.521841
-1.7225811 -0.1180611 -0.60629219
-1.2794822 0.27316999 -0.2471474
-1.5035735 -0.0377694 -0.2107349
0.97298282 0.3437115 -0.45210031
-0.2135454 1.4906963 -1.393959
-0.22374789 1.500025 -1.3845938
-0.49958879 1.6137527 -1.6043165
-0.49785769 1.5860671 -1.5844773
-0.45265031 1.5422206 -1.4218249
-0.94839263 1.6991477 -1.8533157
-0.95033938 1.6964235 -1.8497553
-0.94537562 1.7008929 -1.854254
-0.30886781 0.0100109 0.1064088
-0.2609638 0.024909999 0.024263499
-0.28113621 0.0153706 0.069712102
-0.33487371 -0.0061786999 0.1454079
-0.27304611 0.0200582 0.044420999
-1.581367 0.61486238 -0.61352569
-1.3038204 0.2241828 -0.43617541
-1.3782686 0.38565981 -0.51151007
-1.3322386 0.38633451 -0.58119923
-1.3723603 0.37894231 -0.56038523
-1.2876638 0.28743449 -0.3346017
-0.3022584 0.0063076001 0.080813602
-3.171113 -0.1019373 -2.1110981
-1.2708712 0.28425819 -0.34530309
-1.4433266 0.062961496 -0.39238471
-1.8404744 -0.55371451 -0.82581478
-2.0271087 -0.81293648 -0.86600572
-1.9172095 -0.59264141 -0.7563653
-2.0266147 -0.79392773 -0.85071379
-1.9210089 -0.4521516 -0.62469178
-2.5495334 1.1203223 -0.80655563
-1.8168546 -0.54600751 -0.82806408
0.67277718 0.70624131 -1.7153388
0.67335021 0.70650148 -1.7189468
0.68140793 0.86401612 -1.6822813
0.53696507 0.74356008 -1.7587413
0.62428248 0.70779318 -1.6994236
0.68122131 0.86651027 -1.6852456
0.68270493 0.8666665 -1.6850455
0.59350729 0.71876973 -1.7277346
0.62828118 0.70375627 -1.7097691
0.83887982 0.65407079 -1.54319
0.61360741 0.66278988 -1.5894132
0.4744598 0.71444267 -1.7589574
0.49095729 0.98287249 -1.6817818
0.3836863 0.71450913 -1.7732577
0.53783548 1.0430446 -1.6503432
0.50877059 0.65542191 -1.5705218
0.30127919 0.71520841 -1.7954867
0.42024869 0.66455352 -1.6028506
0.42312011 0.6595605 -1.6074029
0.34706849 0.65299618 -1.5895779
0.72086149 0.54574323 -1.2640791
0.1049131 0.83878672 -1.7709424
0.141752 0.93723768 -1.7492089
0.1152083 1.1371582 -1.6842922
0.1176521 1.1359633 -1.6782575
0.52545869 0.44188479 -1.0145353
0.53453481 0.43993089 -1.0385324
1.1266845 0.91390741 -0.23334549
0.8737886 0.71842808 -1.697338
0.87475753 0.71873212 -1.695611
0.86690313 0.75350487 -1.6899604
0.81965297 0.7259413 -1.7184788
0.78571522 0.72418088 -1.7183199
0.76566219 0.93864739 -1.6573753
0.65031242 0.70777178 -1.7186463
0.68047649 0.86823952 -1.6785724
0.84142661 0.65310311 -1.5336518
0.56954318 0.70621312 -1.7300881
0.58499998 0.79323453 -1.7266041
0.6609267 0.67264938 -1.6082815
0.47204611 0.71139282 -1.7554396
0.3735753 0.73063928 -1.7915568
0.40199211 0.71432161 -1.7425982
0.4609406 0.71201682 -1.7169224
0.6351319 0.67809629 -1.6204941
0.69058222 0.69145119 -1.6635287
0.4918558 0.71619147 -1.7479908
0.46620479 0.70683771 -1.7470163
0.49112821 0.71384782 -1.7472196
0.57842731 0.95663851 -1.6933985
0.38549411 0.71132171 -1.7757
0.38330999 0.71513051 -1.7671678
0.48954391 0.97877139 -1.6827716
0.46963689 0.88565248 -1.6841019
0.54770571 0.68494397 -1.6539154
0.32667789 0.73779267 -1.8007221
0.31595311 0.76414001 -1.7955577
0.29691961 0.71487951 -1.7917099
0.57156497 0.65632498 -1.5720534
0.26876059 0.71566153 -1.7886308
0.52135122 0.64924413 -1.5625694
0.42295989 0.66186953 -1.6024895
0.4203383 0.65888441 -1.5983716
0.4197073 1.0501211 -1.6603838
0.3213782 0.99282289 -1.7197815
0.104464 0.83845139 -1.7746774
0.46899939 0.60666889 -1.4501524
0.67039281 0.56132448 -1.3189645
0.71893978 0.54615778 -1.2798423
0.1103187 1.0229175 -1.7327834
0.099567801 1.0296702 -1.7153945
0.1169921 1.142372 -1.6604174
0.2276531 0.57422489 -1.4070096
0.5239926 0.43391141 -1.008798
0.52462018 0.43024889 -1.0012119
0.41118929 0.4454923 -1.0439531
-0.2497319 1.5050355 -1.2639896
-0.2440183 1.5031228 -1.2772605
0.1740189 0.33535361 -0.80435801
-1.2075461 1.6691921 -1.8336227
0.163059 0.33481491 -0.78423589
0.31457269 0.2668919 -0.60403132
0.622069 -0.0063691 0.1128968
-0.2259479 0.045307402 -0.057307199
-0.22969981 0.044335399 -0.039293099
-1.1041991 1.205984 -0.67826188
-0.2180142 0.042811699 -0.0427166
-1.0972992 1.2048378 -0.67474228
-1.1344241 1.2162242 -0.63936639
-1.4229228 0.1589552 -0.6822654
-1.2966049 0.3243854 -0.36178091
-1.8383944 -0.67404199 -0.5535959
-1.6840923 -0.1757002 -0.1029619
-1.7252114 -0.14452089 0.085433401
-2.8375778 1.1858978 -1.0618943
-2.7969782 1.1829644 -1.0865062
0.74004048 0.70411462 -1.7084833
0.67187059 0.70620328 -1.7084618
0.64582288 0.70813328 -1.710898
0.6283195 0.70656538 -1.6996062
-0.48903811 1.5853739 -1.58157
-0.2731325 1.5332619 -1.3460803
0.93457258 0.74652529 -0.31292111
-0.9442637 1.6886194 -1.8313825
-1.4045451 0.38949561 -0.46977061
-1.3608997 0.3833397 -0.56070542
-1.5714467 -0.1932483 -0.43495971
-3.1220262 0.2121487 -1.8093334
-3.1218159 0.59853703 -1.7032807
-2.9026463 0.9195019 -1.1503369
-2.7631128 1.1674951 -1.1070278
0.80253571 0.93498659 -1.6489854
0.78565431 0.68504071 -1.6442125
0.801566 0.93486238 -1.6484231
0.60290772 0.67249137 -1.6159433
0.31287369 0.71038061 -1.7650198
0.60228848 0.67325711 -1.6036614
0.28240201 0.73603451 -1.804914
0.6032775 0.67453462 -1.6058253
0.60167748 0.67047572 -1.6105267
0.54030633 0.68140358 -1.6306604
0.4818185 0.67912191 -1.6567732
0.48098651 0.67838609 -1.6383582
0.4825123 0.67816103 -1.6596203
0.48007071 0.67775172 -1.6433868
0.5727765 0.65426213 -1.5777613
0.4510251 0.67639071 -1.645342
0.51553041 0.65526009 -1.5694225
0.26424989 0.6640138 -1.6480509
0.1023489 0.75054139 -1.8036222
0.112631 0.85168469 -1.7794204
0.5640552 0.6082713 -1.4598427
0.094959296 0.66386992 -1.6325145
0.094191499 0.66755462 -1.6325604
0.094922103 0.66639853 -1.6334268
0.36297101 0.59653592 -1.4390619
0.36300921 0.59646952 -1.4414296
0.35942271 0.59245992 -1.4229496
0.3583518 0.59285402 -1.4305848
0.45410189 0.55526471 -1.3204283
0.31463629 0.51219219 -1.2202166
0.52565241 0.4291119 -0.98302871
0.0290817 0.461584 -1.1216651
-0.20158949 1.4563818 -1.3357323
0.1924483 0.4029403 -0.96123248
0.1919508 0.40307841 -0.96804053
0.44555891 0.26946971 -0.60029441
-1.0543573 1.1774762 -0.74830872
0.6145125 -0.0092072003 0.0981168
-0.23002771 0.055764101 -0.059275098
-1.1529382 1.2287693 -0.62609619
-1.1700096 0.93810129 -0.70065302
-1.035542 1.0802152 -0.40089279
-1.2553967 0.96626198 -0.56669861
-1.0411726 1.0890789 -0.39234781
-1.0085441 1.0701833 -0.44828051
-1.1395789 0.83393443 -0.3882499
-1.0020421 1.0695953 -0.44585171
-1.1729321 0.90921748 -0.44168669
-1.0073547 1.0763446 -0.42596909
-1.2242044 0.46081999 -0.28877339
-1.0102149 0.75170708 -0.23451971
-1.02449 0.75892192 -0.2128159
-1.0142205 0.75309408 -0.22254691
-1.0449109 0.71306539 0.13950659
-1.1103442 0.76855087 -0.0964946
-1.0492119 0.7532357 -0.16424771
-1.3371366 0.2947219 -0.2881003
-1.3081619 0.40478331 -0.0076123001
-2.6587453 1.3269715 -1.1307572
-0.99588227 0.6982848 0.0163753
-1.039077 0.68000108 0.0124364
-1.0224694 0.69537759 0.073264398
-1.6866987 -0.1306473 0.0024406
-1.0193701 0.6724236 -0.0065481002
-1.0352012 0.67511219 -0.016384801
-2.992202 0.988832 -1.0201869
-0.98844123 0.67189032 -0.054607499
-2.8755598 1.1547786 -0.54845482
-2.7534468 1.0516948 -0.44106209
-2.4295318 0.53896773 -0.3831982
-2.6625278 0.93345499 -0.2904329
-2.8863733 1.0796732 -0.44811311
0.90831679 -0.97671008 2.04304
0.055223901 0.63659853 -1.5471084
0.2339436 0.60829562 -1.4861211
0.0954412 0.5708757 -1.3866391
0.2612178 0.55661511 -1.3515663
0.010326 0.5472306 -1.3262556
0.34985229 0.52326912 -1.2532747
0.16841041 0.33145899 -0.78986698
-1.2738096 0.88268101 -0.66827112
-1.1936713 0.95476258 -0.65721297
-1.3024642 0.66506141 -0.63316149
-1.353212 0.6733489 -0.62967712
-1.8882366 -0.57148743 -0.82188731
-1.4344845 0.44394729 -0.66027337
-0.3482351 1.0730555 -0.29790169
-1.235554 0.62047303 -0.50986302
-0.3522926 1.0790892 -0.27427569
-1.1509792 0.84362203 -0.38187569
-0.92728633 0.94118792 -0.1801943
-1.0581141 0.73279858 -0.20902041
-1.301882 0.260571 -0.19998179
-1.0842606 0.79256833 -0.1610954
-1.1936828 0.2156488 -0.3863515
-1.3294671 0.26052159 -0.1450536
-0.91549379 0.94238222 -0.1665653
-1.0446444 0.70361048 -0.1076817
-1.0126077 0.66153377 -0.038601998
-2.7861602 0.79934019 0.016382299
-2.4100258 -0.70857197 -0.031919599
-2.476754 0.25327811 0.094152801
-2.7914598 0.4603014 0.1925796
-2.2552805 -0.92800289 0.71297479
-2.2537358 -1.2534136 0.94360638
-1.2369289 0.52064019 1.0510982
0.2256853 0.57772869 -1.4116993
0.44187799 0.55103058 -1.3406118
0.0163984 0.56954902 -1.3635155
0.069661103 0.52411312 -1.2873617
0.24644729 0.492237 -1.2015706
-2.5281732 0.8757056 -0.134499
0.58509427 0.71681279 -1.7472508
0.31949461 0.71624368 -1.7842457
0.1170996 0.83835143 -1.8029859
0.60217911 0.67188811 -1.6256973
0.29489949 0.67717129 -1.6512374
0.26630941 0.66412312 -1.6461756
0.51828218 0.65079027 -1.5757813
0.51439941 0.65274352 -1.5827034
0.36403221 0.59568202 -1.4553961
0.27641889 0.5610863 -1.3526255
0.092684299 0.56969649 -1.3751578
0.019115301 0.56604469 -1.3790116
0.0170362 0.56143433 -1.37319
0.0156015 0.56478018 -1.3790002
0.31424999 0.51251751 -1.2124487
0.29746419 0.4467442 -1.0698638
0.1907516 0.40270281 -0.96230322
0.0641912 0.3393603 -0.79572183
0.16638321 0.33087489 -0.77588058
-1.1822828 0.90755141 -0.57688463
-1.2728039 0.82092172 -0.70073509
-1.4504187 0.4178623 -0.64768898
-1.2829357 0.54381132 -0.46307471
-1.1409178 0.84218341 -0.40828821
-1.1065232 0.84138989 -0.45564681
-0.22855 0.039611802 -0.035029601
-1.723528 -0.43951601 -0.46820319
-0.23008899 0.045861501 -0.041043699
-1.7847428 -0.47306931 -0.39505309
-1.2368026 0.28566611 -0.40613431
-1.290048 0.2931931 -0.3578077
-1.2889248 0.27831161 -0.32834041
-1.4267447 0.0409972 -0.3827107
-0.93676132 0.95320708 -0.1297424
-1.1362056 0.4764846 -0.1081073
-0.91310781 0.87034929 0.17470799
-1.0686527 0.63135028 0.032768901
-0.90726852 0.87292129 0.1786695
-0.90928549 0.87470633 0.1996111
-1.0983149 0.63504648 0.064071603
-0.90411162 0.84927619 0.1077288
-2.7599132 0.87319613 -0.063919596
-2.7053909 0.49386939 -0.0236587
-2.8498654 0.88611221 0.0108517
-2.4748321 0.89511222 0.22364961
-0.2167965 0.88302261 0.042231899
-1.1773649 0.41101739 -0.1829441
-1.1777289 0.46897921 -0.1539567
-1.1917635 0.4815464 0.0033439
-0.1974832 0.60030651 0.067736603
-0.2527346 0.86660308 0.29005501
-1.0271944 0.67521769 -0.057472602
-2.6168785 -0.068642497 0.1232415
-1.1415714 0.4898783 1.1100397
-0.75036478 0.2656976 1.6350855
-1.1102107 0.45001909 1.3188531
0.099956296 0.64789587 -1.5928257
0.0512469 0.63459867 -1.5491503
0.1643457 0.63506311 -1.5548139
0.051807798 0.61876678 -1.5135665
0.1444477 0.61211348 -1.5020969
0.2318432 0.60723972 -1.4909567
0.0376551 0.59474307 -1.4706162
0.044688199 0.59851581 -1.4517356
0.0584407 0.6445511 -1.5737815
0.058295 0.64404899 -1.5729239
0.1013681 0.63088149 -1.5498304
0.0145012 0.70827162 -1.3965318
0.0371061 0.69804668 -1.3866557
0.0367698 0.69258308 -1.3787881
0.2112765 0.6173811 -1.5106913
0.0015088 0.5413931 -1.2874756
0.2172353 0.62089521 -1.5087918
0.0062894002 0.53747803 -1.2872486
-0.0145663 0.53830582 -1.2621689
-0.0026757 0.52177858 -1.2677152
-0.0124588 0.54152811 -1.2587631
-0.0025161 0.51585758 -1.2322644
0.0083673 0.64887547 -1.2540426
0.0016211 0.63787037 -1.25572
0.0060538999 0.63703918 -1.2409855
-0.0088974005 0.63338292 -1.2328811
0.0112218 0.63653862 -1.2163124
-0.015831601 0.49607119 -1.1731488
-0.0117445 0.62524289 -1.1983266
0.032881301 0.88426977 -1.2977519
-0.0282481 0.59134942 -1.1065147
-0.0244416 0.59301531 -1.1014289
-0.0206866 0.58758879 -1.1119848
0.0081751999 0.82600403 -1.1411561
-0.056746099 0.56824088 -1.002095
0.16110221 0.4995763 -1.2118301
-0.060286801 0.56736332 -1.0060092
-0.067268603 0.44058341 -0.97614121
-0.065159701 0.38573539 -0.90673703
-0.0585109 0.52692759 -0.94566721
-0.0125654 0.76903069 -0.99153942
-0.084390402 0.3725746 -0.90409839
-0.1009877 0.34488919 -0.80595678
-0.085365303 0.4727684 -0.82097459
-0.086140402 0.47156149 -0.81899512
-0.048965 0.7176457 -0.88831419
-0.090043001 0.47121999 -0.82260191
-0.082835197 0.47031409 -0.80146712
-0.096731 0.46083301 -0.78248632
0.31588879 0.4703061 -1.1255383
0.19991989 0.40016159 -0.95959222
-0.0050297999 0.34622511 -0.8234092
-0.102604 0.31102231 -0.7354545
-0.118078 0.41442519 -0.69828838
-0.081983201 0.68835461 -0.74210262
0.0209051 0.31014809 -0.71907502
-0.084360003 0.68922269 -0.70786172
-0.0039194999 0.28164229 -0.66120422
0.054920599 0.63674802 -1.5457735
0.064400598 0.6666916 -1.6455568
0.0751497 0.66920471 -1.6418483
0.059520099 0.64590663 -1.5722054
0.053651899 0.62491572 -1.5229554
0.038170401 0.6054374 -1.4710554
0.0356845 0.60086918 -1.4569943
0.035708498 0.59396333 -1.4699674
0.0378596 0.60362703 -1.4711137
0.031906601 0.59388429 -1.4448966
0.0276279 0.59334522 -1.4315631
0.033679601 0.71483529 -1.4190229
0.0264045 0.71729672 -1.404024
0.0204251 0.56994158 -1.4075812
0.0280203 0.70372659 -1.4068427
0.032435499 0.69099659 -1.3833326
0.2267848 0.5760836 -1.4070194
